ply
format ascii 1.0
element vertex 2014
property float x
property float y
property float z
end_header
131.767 30.5158 666.512
132.328 29.6059 668.25
131.229 31.2324 664.872
131.493 30.8744 665.689
130.349 32.656 661.64
130.706 32.3195 662.803
130.807 32.1369 663.001
130.976 31.7808 663.804
130.209 32.8606 662.301
129.869 33.3698 660.168
130.064 33.0084 660.81
129.144 34.2292 657.914
129.459 33.8922 658.968
128.361 35.4618 655.241
128.551 35.1047 655.869
128.799 34.7556 656.653
127.659 36.4872 652.649
127.926 36.1497 653.57
128.149 35.8093 654.459
127.08 37.5431 650.716
127.246 37.1879 651.294
127.427 36.8324 651.877
126.383 38.3918 648.774
126.545 38.2225 649.088
126.832 37.8849 649.929
125.548 39.3675 645.777
125.862 39.0549 646.959
126.161 38.7338 648.026
125.012 40.4067 643.921
125.148 40.0541 644.433
125.309 39.701 644.945
124.234 41.3982 641.449
124.462 41.0646 642.211
124.77 40.7398 643.123
123.646 42.2275 639.612
123.755 42.056 639.824
124.028 41.7329 640.715
123.052 43.2428 637.703
123.325 42.9127 638.447
123.485 42.5663 638.969
122.32 44.206 635.157
122.499 43.8779 635.894
122.728 43.5553 636.719
121.721 45.1824 632.913
121.91 44.8553 633.627
122.121 44.5324 634.411
121.118 46.175 630.992
121.342 45.8495 631.693
121.537 45.5156 632.294
120.588 46.9802 629.242
120.731 46.8184 629.517
120.907 46.4951 630.228
119.828 47.9236 626.854
120.07 47.611 627.663
120.321 47.2929 628.411
119.204 48.8752 624.671
119.405 48.5539 625.336
119.598 48.231 625.991
118.727 49.8574 622.954
118.851 49.5182 623.373
118.995 49.1889 623.92
117.971 50.7798 620.598
118.232 50.4736 621.388
118.525 50.1763 622.295
117.476 51.5764 619.101
117.599 51.4166 619.338
117.785 51.0995 619.979
117.035 52.3616 617.391
117.301 51.8962 618.503
116.425 53.4842 615.51
116.554 53.1562 615.976
116.663 52.9956 616.184
116.847 52.676 616.754
115.897 54.43 613.729
116.128 54.1296 614.48
116.305 53.8132 615.061
115.41 55.3604 611.845
115.53 55.0382 612.333
115.688 54.7283 612.963
114.944 56.139 610.426
115.073 55.9847 610.673
115.265 55.6791 611.325
114.519 56.4329 609.905
114.474 56.7422 609.073
114.717 56.4413 609.752
113.536 57.7118 605.832
113.955 57.3235 607.523
112.62 58.6695 602.714
112.844 58.3921 603.57
112.961 58.2386 603.793
113.23 57.9674 604.726
111.866 59.5007 600.199
112.125 59.2218 601.009
112.395 58.9485 601.884
111.294 60.2197 598.484
111.419 60.07 598.721
111.641 59.7883 599.485
110.798 60.9232 596.555
110.975 60.6296 597.179
110.135 61.9763 594.724
110.331 61.6837 595.334
110.459 61.5363 595.578
110.637 61.2312 596.076
109.889 62.5843 593.73
109.956 62.2667 594.098
110.241 64.1164 594.694
110.293 63.7779 594.864
110.268 65.1514 594.357
110.211 64.8002 594.415
110.195 64.4505 594.483
115.389 67.833 610.24
115.596 68.2721 611.074
115.36 68.5586 610.177
115.344 68.1799 610.067
115.609 69.1229 610.526
162.352 -10.1637 765.767
162.471 -10.3893 766.008
162.693 -10.6178 766.461
161.624 -9.22732 763.444
161.987 -9.69484 764.61
160.58 -7.83335 759.888
160.806 -8.05872 760.348
161.153 -8.52257 761.53
160.108 -7.39696 759.401
159.631 -6.67343 756.632
160.006 -7.133 757.707
158.526 -4.85281 752.921
158.99 -5.54073 754.737
159.25 -5.99585 755.62
157.571 -3.72765 749.906
157.715 -3.94676 750.197
158.103 -4.3988 751.514
156.74 -2.38359 746.954
157.002 -2.83034 747.909
157.302 -3.27846 748.989
155.554 -1.04974 743.162
155.98 -1.49215 744.695
156.412 -1.93702 746.052
154.739 0.273335 740.461
154.975 -0.166885 741.244
155.213 -0.608129 742.014
153.982 1.36306 738.173
154.155 1.1495 738.52
154.418 0.711773 739.411
152.991 2.66204 734.57
153.049 2.44927 734.687
152.431 3.52713 732.861
152.739 3.09478 733.716
151.456 4.81262 729.811
151.544 4.602 729.989
151.941 4.17552 731.178
150.338 6.08099 726.204
150.768 5.66037 727.504
151.215 5.239 728.884
149.539 7.34492 723.328
149.868 6.92743 724.506
150.078 6.50394 725.286
148.74 8.38089 720.647
148.886 8.17523 720.94
149.164 7.75792 721.928
147.858 9.84155 717.493
148.19 9.42871 718.512
147.199 10.6612 715.335
147.561 10.2542 716.543
146.145 12.0821 711.808
146.337 11.672 712.592
146.434 11.4685 712.787
146.798 11.0651 714.031
145.615 12.8957 710.028
145.964 12.494 711.153
144.385 14.293 706.399
144.504 14.0929 706.637
144.787 13.6884 707.456
145.044 13.4932 707.968
143.605 15.493 703.706
143.851 15.2998 704.194
144.205 14.6985 705.697
142.596 16.6675 700.394
142.875 16.2739 701.361
143.172 15.8797 702.353
141.887 17.4418 698.104
142.27 17.0558 699.27
140.815 18.7946 694.281
141.078 18.4036 695.112
141.371 18.0169 696.125
140.177 19.7629 692.237
140.3 19.569 692.48
140.581 19.1855 693.486
139.363 20.9206 689.682
139.591 20.5291 690.332
139.852 20.1427 691.163
138.445 22.0504 686.586
138.757 21.6786 687.721
139.075 21.3042 688.819
137.514 23.1726 683.579
137.82 22.801 684.614
138.116 22.4243 685.546
136.882 24.1098 681.496
137.088 23.7304 682.246
137.199 23.5401 682.465
136.016 25.2206 678.673
136.285 24.8467 679.493
136.627 24.4832 680.61
135.202 26.3344 676.16
135.535 25.9756 677.277
135.819 25.6058 678.157
134.718 27.0667 674.368
134.919 26.6971 675.169
133.965 28.3642 671.94
134.09 28.1798 672.187
134.343 27.814 673.015
134.446 27.6273 673.22
133.139 29.4463 669.271
133.345 29.0777 669.964
133.645 28.7196 670.91
132.398 30.5267 666.768
132.657 30.1708 667.671
132.929 29.8134 668.565
131.718 31.4048 664.256
131.941 31.0414 664.95
130.985 32.4684 661.752
131.203 32.1144 662.577
131.448 31.7626 663.465
130.408 33.3673 660.138
130.537 33.1887 660.39
130.77 32.8295 661.082
129.796 34.2456 658.232
129.033 35.2806 655.618
129.116 35.0991 655.779
129.385 34.7588 656.724
128.177 36.4821 652.566
128.371 36.1307 653.248
128.652 35.791 654.148
127.584 37.5352 650.587
127.847 37.1933 651.389
128.029 36.8402 652.014
126.782 38.5275 647.734
127.062 38.2048 648.8
127.323 37.8749 649.766
126.271 39.3947 646.205
126.367 39.2186 646.392
126.542 38.8652 646.931
125.474 40.3865 643.605
125.8 40.0694 644.666
126.081 39.7445 645.625
124.938 41.4185 641.745
125.111 41.079 642.422
125.257 40.7298 642.964
124.091 42.3863 639.042
124.338 42.0593 639.863
124.654 41.7432 640.859
123.635 43.2353 637.582
123.714 43.0607 637.735
123.888 42.7239 638.389
122.885 44.2014 635.078
123.129 43.8786 635.888
123.379 43.5579 636.741
122.192 45.1718 632.754
122.399 44.8489 633.524
122.633 44.5254 634.298
121.519 46.1408 630.519
121.704 45.8081 631.122
121.964 45.4915 631.951
121.094 46.968 629.063
121.151 46.7937 629.175
121.332 46.4686 629.86
120.399 47.9136 626.703
120.635 47.6045 627.557
120.882 47.2917 628.375
119.708 48.8676 624.553
119.927 48.5523 625.294
120.159 48.2319 625.98
119.167 49.8321 622.62
119.324 49.5039 623.173
119.506 49.1844 623.842
118.489 50.7735 620.496
118.668 50.4534 621.12
118.922 50.1454 621.897
117.948 51.7185 618.497
118.155 51.4101 619.231
118.335 51.0972 619.924
117.421 52.5002 616.892
117.607 52.1843 617.516
117.359 52.6242 615.866
116.719 53.4099 614.642
116.956 53.1114 615.437
117.225 52.8151 616.265
116.374 54.3999 613.362
116.504 54.0716 613.802
116.602 53.7381 614.189
115.798 55.3137 611.306
115.961 55.0032 611.918
116.194 54.7084 612.71
115.421 56.1109 610.09
115.515 55.9505 610.271
115.654 55.6327 610.792
115.112 56.4223 609.754
115.02 56.7186 608.784
115.228 56.4142 609.426
114.051 57.9031 605.953
114.37 57.4731 607.208
114.57 57.3332 607.585
113.486 58.5805 603.546
113.702 58.3001 604.38
113.174 58.9323 603.79
112.811 59.2654 601.403
112.954 59.1178 601.673
113.226 58.8504 602.616
111.777 60.365 598.053
112.416 59.6906 600.313
111.195 61.0796 596.355
111.31 60.929 596.573
111.538 60.6461 597.3
110.697 61.9854 594.768
110.854 61.6739 595.198
111.015 61.3711 595.719
110.467 62.9481 593.753
110.446 62.5938 593.776
110.558 62.2885 594.26
110.766 64.1164 594.651
110.739 63.7516 594.581
110.615 63.3492 594.163
110.587 65.1312 594.144
110.737 64.811 594.472
110.769 64.4656 594.577
115.803 67.8309 610.186
162.949 -10.3927 765.569
161.748 -8.53047 761.553
162.093 -8.99491 762.571
162.462 -9.46113 763.632
162.755 -9.92745 764.67
160.845 -7.37922 758.656
160.981 -7.60215 758.932
161.343 -8.06524 760.24
160.257 -6.46168 756.603
160.547 -6.91971 757.599
159.022 -4.85876 752.404
159.331 -5.31248 753.39
159.851 -6.00288 755.304
158.084 -3.73412 749.628
158.262 -3.9535 749.989
158.657 -4.40556 751.271
157.283 -2.39015 746.867
157.524 -2.83674 747.797
157.783 -3.28476 748.637
156.652 -1.49994 744.659
156.978 -1.94459 745.744
155.388 0.265655 740.367
156.199 -0.830099 742.938
155.056 0.461437 740.632
154.569 1.13996 737.822
154.997 0.703957 739.183
153.513 2.65643 734.552
153.719 2.22181 735.258
154.01 1.78712 736.169
152.835 3.73854 731.983
153.37 3.09148 734.039
152.069 4.80406 729.601
152.15 4.5934 729.764
152.408 4.16532 730.684
151.118 6.07835 726.55
151.292 5.87049 726.899
150.248 7.34049 723.461
150.497 6.92037 724.424
150.803 6.50014 725.496
149.262 8.58964 720.189
149.578 8.17249 721.148
149.92 7.75726 722.314
149.207 8.78727 720.888
148.75 9.42257 718.438
148.986 9.00665 719.306
147.745 10.8609 715.164
147.989 10.4501 716.103
148.338 10.0409 717.239
146.646 12.0763 711.724
147.037 11.6748 712.985
147.443 11.2699 714.163
145.92 13.2957 709.099
146.093 12.886 709.766
146.301 12.4774 710.527
145.312 14.1029 707.285
145.658 13.7021 708.296
144.148 15.4856 703.572
144.229 15.285 703.734
144.539 14.8898 704.803
144.758 14.6947 705.238
143.469 16.471 700.845
143.562 16.2719 701.029
142.873 17.2564 698.916
143.195 16.8654 699.927
141.508 18.7995 694.572
141.858 18.4191 695.772
142.082 18.2292 696.216
142.403 17.8422 697.256
140.709 19.7542 692.065
140.909 19.5648 692.458
141.173 19.1768 693.321
139.982 20.9132 689.564
140.26 20.5317 690.519
140.475 20.1437 691.301
139.016 22.039 686.352
139.348 21.6653 687.431
139.656 21.2886 688.461
138.294 22.9841 684.258
138.442 22.7955 684.549
138.686 22.4143 685.349
137.508 24.1114 681.608
137.786 23.7403 682.586
138.035 23.3637 683.448
136.714 25.2279 678.922
136.843 25.0404 679.176
136.023 26.3464 676.518
136.239 25.9758 677.349
136.449 25.6003 678.084
135.23 27.4456 673.858
135.491 27.0783 674.699
135.752 26.7109 675.561
134.332 28.5171 670.79
134.59 28.1572 671.721
134.904 27.8048 672.852
133.556 29.4182 668.703
133.768 29.2428 669.117
134.062 28.879 669.924
132.833 30.507 666.386
133.119 30.1552 667.373
133.249 29.9732 667.627
132.171 31.5877 664.077
132.436 31.2335 664.95
132.648 30.8712 665.682
131.385 32.6397 661.365
131.631 32.2866 662.201
131.897 31.9386 663.156
130.89 33.3386 659.613
131.14 32.9905 660.507
130.262 34.414 657.62
130.465 34.0564 658.286
130.678 33.6968 658.93
129.591 35.4558 655.156
129.887 35.1205 656.176
130.092 34.7731 656.997
128.867 36.314 653.141
129.026 36.1419 653.451
129.292 35.797 654.263
128.036 37.5053 650.091
128.3 37.1707 651.012
128.515 36.8238 651.741
127.919 37.7013 650.581
127.585 38.1922 648.594
127.807 37.8467 649.302
126.752 39.3745 645.882
126.947 39.0319 646.589
127.236 38.7047 647.556
126.017 40.3859 643.591
126.322 40.061 644.532
126.568 39.7212 645.254
125.387 41.3918 641.337
125.554 41.0504 641.983
125.753 40.7145 642.724
125.235 41.5812 641.718
124.925 42.0571 639.82
125.167 41.7264 640.6
124.033 43.1967 637.017
124.293 42.8746 637.875
124.572 42.5544 638.776
123.403 44.1881 634.878
123.583 43.85 635.473
123.79 43.5189 636.175
122.712 45.1658 632.656
122.922 44.8418 633.411
123.175 44.5192 634.197
122.035 46.126 630.303
122.233 45.7983 630.973
122.356 45.6327 631.211
121.596 46.9624 628.971
121.671 46.7908 629.117
121.83 46.454 629.648
120.884 47.898 626.483
121.117 47.5848 627.282
121.368 47.2807 628.212
120.191 48.8608 624.446
120.403 48.539 625.105
120.64 48.216 625.757
119.654 49.8133 622.366
119.814 49.4915 622.996
119.981 49.1738 623.688
118.977 50.7471 620.152
119.217 50.438 620.905
119.465 50.131 621.694
118.458 51.5385 618.599
118.64 51.2189 619.205
118.759 51.0581 619.432
117.847 52.4786 616.617
118.049 52.1591 617.196
118.273 51.8506 617.914
117.348 53.4247 614.776
117.535 53.1163 615.46
117.691 52.8015 616.081
116.793 54.3637 612.931
116.972 54.045 613.473
117.155 53.7315 614.082
116.24 55.2892 611.008
116.418 54.9827 611.662
116.6 54.6748 612.31
115.75 56.229 609.308
115.888 55.9058 609.76
116.059 55.5955 610.359
115.376 57.0211 608.091
115.522 56.707 608.626
115.271 57.1408 607.14
114.734 57.923 606.115
114.987 57.6355 606.901
115.22 57.3338 607.548
113.933 58.7614 603.567
114.223 58.4888 604.476
114.503 58.2122 605.353
113.201 59.5772 600.877
113.523 59.3216 601.924
113.739 59.0474 602.8
112.281 60.3664 598.03
112.545 60.0953 598.89
112.836 59.826 599.777
111.697 61.07 596.222
111.938 60.7951 597.024
111.746 61.2217 595.687
111.225 61.9823 594.696
111.348 61.6713 595.135
111.491 61.3619 595.592
111.093 62.9764 593.972
111.054 62.6154 593.934
111.105 62.2877 594.209
111.343 64.1322 594.752
111.28 63.7572 594.59
111.174 63.3613 594.232
111.437 65.1899 594.614
111.371 64.83 594.595
111.366 64.4849 594.708
114.512 66.0054 600.456
116.721 68.8238 610.845
116.677 68.637 610.77
116.595 68.2468 610.566
116.925 69.2047 611.145
163.482 -10.1744 765.07
163.587 -10.3993 765.282
163.963 -10.8709 766.57
162.648 -8.76478 761.849
161.467 -7.38666 758.49
161.619 -7.60987 758.798
161.966 -8.07217 759.959
162.227 -8.29848 760.488
160.837 -6.46855 756.397
161.158 -6.92708 757.442
159.643 -4.86632 752.393
159.954 -5.32017 753.422
160.34 -5.77645 754.672
159.255 -4.19471 751.324
159.365 -4.41403 751.545
157.931 -2.398 746.759
158.126 -2.61601 747.154
158.473 -3.06408 748.221
157.393 -1.5071 744.984
157.638 -1.9519 745.828
156.883 -0.8682 744.308
156.333 -0.181217 741.369
156.547 -0.396477 741.799
156.922 -0.837433 743.095
155.167 1.34794 737.855
155.507 0.91072 738.86
155.875 0.472681 739.975
154.583 2.21697 735.744
154.872 1.78401 736.909
153.469 3.72995 731.776
153.886 3.30208 733.107
154.205 2.87036 734.093
153.327 3.92547 732.334
152.884 4.58905 730.008
153.116 4.15843 730.696
152.179 5.64923 727.687
152.572 5.22743 729.01
150.779 7.33133 723.182
151.226 6.69869 724.939
149.961 8.58627 720.352
150.207 8.16912 721.284
150.46 7.75015 722.174
149.015 9.61295 717.577
149.408 9.20262 718.793
149.665 9.00076 719.306
148.246 10.851 714.875
148.581 10.4431 715.999
148.793 10.0282 716.773
147.457 12.0801 712.191
147.747 11.6749 713.257
147.949 11.2612 713.94
146.441 13.2858 708.842
146.746 12.8843 709.906
147.092 12.4821 711.013
145.694 14.2878 706.094
145.968 13.886 707.005
144.597 15.6757 702.716
144.929 15.2809 703.764
145.06 15.0824 704.024
145.374 14.6865 705.087
143.917 16.4579 700.485
144.264 16.069 701.659
142.969 17.6318 697.508
143.349 17.2454 698.642
143.632 16.8506 699.507
142.097 18.7986 694.656
142.336 18.4057 695.431
142.595 18.0136 696.266
141.359 19.7573 692.274
141.537 19.5666 692.626
141.833 19.1846 693.688
140.587 20.9115 689.61
140.922 20.5328 690.658
141.112 20.1429 691.385
139.636 22.0425 686.536
139.92 21.6672 687.568
140.219 21.2874 688.51
138.858 23.1785 683.903
139.153 22.8014 684.801
139.409 22.4223 685.666
138.004 24.3 681.13
138.23 23.9213 681.894
138.552 23.553 682.966
137.255 25.2216 678.824
137.686 24.8679 680.169
137.255 25.4054 677.644
136.469 26.3273 676.106
136.637 25.9488 676.74
136.87 25.5776 677.576
135.951 27.0577 674.264
136.234 26.6947 675.226
134.973 28.524 670.984
135.3 28.173 672.122
135.407 27.9868 672.331
135.637 27.6204 673.156
134.142 29.6005 668.242
134.375 29.2378 669.048
134.635 28.8746 669.866
133.55 30.318 666.518
133.848 29.9559 667.301
132.707 31.5747 663.843
133.028 31.2268 664.845
132.238 32.2859 662.211
132.448 31.9284 662.98
131.592 33.3612 660.059
131.795 33.0033 660.771
132.005 32.644 661.471
130.878 34.4189 657.725
131.132 34.0715 658.582
131.369 33.7172 659.328
130.106 35.2639 655.342
130.262 35.0903 655.645
130.563 34.753 656.644
129.401 36.4911 652.736
129.58 36.1323 653.291
129.741 35.7747 653.879
128.66 37.521 650.357
128.821 37.1699 651.001
129.07 36.8254 651.773
128.06 38.3732 648.473
128.19 38.2001 648.724
128.439 37.8628 649.57
127.217 39.3644 645.72
127.495 39.0322 646.592
127.806 38.7072 647.595
126.655 40.3873 643.607
126.878 40.0564 644.455
127.027 39.7086 645.053
125.919 41.386 641.241
126.192 41.0562 642.063
126.423 40.7187 642.781
125.322 42.2145 639.391
125.442 42.0444 639.623
125.685 41.7183 640.471
124.508 43.3608 636.544
124.84 42.8732 637.844
125.055 42.5379 638.525
123.907 44.1814 634.771
124.141 43.8543 635.52
123.821 44.3091 633.504
123.248 45.1485 632.402
123.499 44.8368 633.325
123.689 44.5098 634.052
122.603 46.1233 630.247
122.782 45.7929 630.881
122.999 45.468 631.6
122.025 47.1131 628.387
122.292 46.798 629.19
122.474 46.4644 629.764
121.464 47.9149 626.678
121.576 47.7496 626.893
121.788 47.4322 627.645
120.729 48.8509 624.299
120.972 48.5372 625.058
121.216 48.2244 625.841
120.181 49.8114 622.318
120.381 49.4928 622.988
120.543 49.1691 623.605
119.65 50.5978 620.631
119.732 50.4305 620.789
119.934 50.1181 621.514
118.979 51.5431 618.628
119.239 51.2358 619.377
119.452 50.9147 619.975
118.378 52.464 616.418
118.554 52.1502 617.065
118.728 51.838 617.74
117.822 53.4084 614.562
118.026 53.0969 615.21
118.21 52.7795 615.797
117.221 54.3332 612.562
117.42 54.025 613.221
117.604 53.7107 613.819
116.717 55.2806 610.883
116.862 54.961 611.395
117.014 54.6407 611.905
116.32 56.0706 609.595
116.406 55.909 609.762
116.56 55.5949 610.32
115.768 56.9887 607.719
115.964 56.6916 608.432
116.145 56.3839 609.04
115.188 57.9018 605.861
115.417 57.604 606.54
115.589 57.2925 607.086
114.612 58.8106 604.026
114.806 58.5067 604.62
114.973 58.1992 605.186
113.713 59.6083 601.155
113.981 59.3378 602.055
114.329 59.0876 603.169
113.124 60.2988 599.138
113.205 60.1406 599.295
113.47 59.8811 600.285
112.6 60.8309 597.327
112.861 60.5546 598.125
111.851 62.0121 594.935
111.916 61.6923 595.294
112.003 61.5365 595.459
112.253 61.2554 596.189
111.899 63.0889 594.977
111.899 62.7284 594.947
111.872 62.3662 594.903
112.015 64.1786 595.13
111.964 63.8169 595.096
111.923 63.4547 595.054
112.078 65.2404 595.025
112.044 64.8785 594.988
112.04 64.53 595.071
117.118 67.9152 610.841
112.198 65.6155 595.176
117.469 68.889 611.366
117.4 68.6967 611.245
117.3 68.3073 611.053
117.592 69.2573 611.559
164.153 -9.94843 765.014
164.533 -10.4191 766.291
164.851 -10.8886 767.306
163.092 -8.54777 761.487
163.414 -9.01182 762.471
163.8 -9.47988 763.79
162.127 -7.39517 758.49
162.325 -7.6193 758.89
162.723 -8.08312 760.23
161.128 -6.01876 755.232
161.509 -6.47739 756.554
161.836 -6.93607 757.57
160.457 -5.10739 752.853
160.814 -5.56274 754.132
159.501 -3.75095 749.728
159.855 -4.2023 750.757
160.108 -4.65365 751.637
158.611 -2.4058 746.792
158.91 -2.85296 747.815
159.182 -3.30116 748.739
157.553 -1.07187 743.258
157.886 -1.51544 744.299
158.248 -1.95996 745.523
156.632 0.25146 740.276
156.89 -0.188515 741.164
157.202 -0.62977 742.13
155.807 1.34102 737.845
155.966 1.12747 738.163
156.318 0.689992 739.237
155.235 2.21057 735.794
155.562 1.7772 736.972
154.096 3.72277 731.693
154.484 3.29591 733.097
154.773 2.86411 734.051
153.227 5.00706 728.816
153.364 4.57676 729.363
153.651 4.14809 730.247
152.062 6.2744 725.255
152.429 5.85306 726.406
152.906 5.43274 727.821
151.391 7.53684 723.256
151.561 7.11362 723.948
151.652 6.90531 724.128
151.247 7.55094 721.734
150.687 8.37043 721.057
151.089 7.95485 722.219
149.651 9.82065 717.186
149.953 9.4092 718.271
150.206 8.99495 719.243
148.704 11.0457 714.432
149.318 10.2306 716.078
148.122 11.8628 712.509
148.392 11.4546 713.452
147.33 12.8765 709.763
147.664 12.4728 710.795
146.125 14.4823 705.798
146.406 14.0836 706.825
146.565 13.8849 707.141
146.869 13.4836 708.137
145.335 15.4669 703.179
145.522 15.2711 703.549
145.817 14.8749 704.574
144.352 16.6487 700.14
144.67 16.2566 701.174
144.878 16.0629 701.585
143.87 17.4369 698.369
144.115 17.0432 699.252
142.95 18.6089 695.59
143.33 18.2223 696.63
143.631 17.8313 697.545
142.015 19.7568 692.376
142.176 19.5651 692.692
142.455 19.1814 693.703
141.423 20.5175 690.286
141.701 20.1375 691.319
140.357 22.0507 686.865
140.395 21.8538 686.94
140.661 21.4711 687.781
139.3 23.1598 683.464
139.649 22.7889 684.529
140.092 22.4288 685.935
138.622 24.2923 681.004
138.847 23.9132 681.758
139.091 23.5396 682.679
137.84 25.2164 678.756
137.969 25.0289 679.007
138.299 24.6622 680.031
137.066 26.3273 676.16
137.335 25.9621 677.125
137.615 25.5925 678.009
136.257 27.4236 673.44
136.5 27.0523 674.185
136.751 26.6833 675.005
135.334 28.4849 670.154
135.649 28.1426 671.476
135.944 27.7858 672.504
134.829 29.4175 668.766
135.025 29.0431 669.33
134.746 29.5906 667.577
134.324 30.1364 667.05
134.585 29.7788 667.937
133.417 31.3876 663.989
133.728 31.0408 665.022
133.985 30.6822 665.838
132.878 32.2854 662.227
132.124 33.3494 659.854
132.226 33.168 660.053
132.452 32.8074 660.718
131.342 34.3922 657.25
131.633 34.0513 658.225
131.901 33.7034 659.087
130.526 35.4177 654.5
130.815 35.0768 655.416
131.076 34.7332 656.3
129.95 36.296 652.845
130.036 36.1158 653.011
130.276 35.7665 653.744
129.287 37.515 650.259
129.509 37.1707 651.02
129.676 36.8162 651.622
128.555 38.3522 648.13
128.728 38.1841 648.463
129.034 37.8564 649.466
127.871 39.3698 645.803
128.158 39.0417 646.743
128.356 38.6969 647.43
127.124 40.3679 643.302
127.367 40.0316 644.065
127.601 39.6976 644.879
126.453 41.3791 641.131
126.616 41.0322 641.693
126.847 40.6972 642.447
125.863 42.2146 639.383
126.006 42.0474 639.658
126.245 41.716 640.429
125.245 43.2007 637.049
125.447 42.8784 637.908
125.648 42.5506 638.698
124.722 43.8441 635.361
124.996 43.5247 636.23
123.881 45.175 632.747
123.99 45.0064 632.956
124.232 44.6825 633.719
123.344 46.1624 630.747
123.503 45.8326 631.395
123.684 45.5052 632.085
123.09 46.3376 630.944
122.785 46.7815 628.954
123.102 46.4785 629.929
121.951 47.8967 626.424
122.193 47.5813 627.195
122.422 47.2629 627.941
121.202 48.8276 623.985
121.452 48.5152 624.759
121.686 48.2043 625.564
120.697 49.7994 622.146
120.87 49.4783 622.785
121.011 49.15 623.344
120.002 50.7342 619.946
120.207 50.4189 620.624
120.459 50.1086 621.373
119.392 51.6689 617.832
119.59 51.3542 618.489
119.794 51.0423 619.19
118.822 52.4296 615.992
119.029 52.1251 616.744
119.157 51.9668 616.987
118.259 53.3773 614.181
118.418 53.0592 614.752
118.613 52.7445 615.37
117.612 54.2945 612.104
117.785 53.9748 612.631
118.01 53.6722 613.358
117.114 55.242 610.432
117.288 54.9279 611.001
117.443 54.6108 611.545
116.564 56.1547 608.451
116.721 55.8473 609.069
116.904 55.5447 609.749
116.206 56.9521 607.3
116.362 56.6364 607.813
116.148 57.0894 606.532
115.759 57.8983 605.785
115.904 57.5837 606.293
116.04 57.2652 606.765
115.164 58.7971 603.848
115.369 58.5009 604.521
115.576 58.2022 605.175
114.44 59.6735 601.762
114.69 59.3887 602.523
114.945 59.095 603.201
113.79 60.3585 599.684
113.942 60.2135 599.97
114.184 59.9444 600.87
113.229 60.8765 597.729
113.504 60.6132 598.659
112.47 62.0379 595.135
112.461 61.6908 595.238
112.525 61.5306 595.361
112.815 61.2656 596.246
112.69 63.1679 595.664
112.682 62.8132 595.695
112.584 62.4258 595.419
112.664 64.2077 595.349
112.633 63.8428 595.284
112.651 63.5021 595.443
112.636 65.2662 595.217
112.678 64.9242 595.358
112.687 64.5731 595.419
117.873 67.9859 611.42
112.576 65.5994 594.997
116.088 67.2065 601.396
117.987 68.7305 611.499
117.923 68.3534 611.417
164.696 -10.1904 764.998
165.01 -10.6595 766.113
165.175 -10.8866 766.446
163.94 -9.01704 762.136
164.463 -9.72568 764.213
162.764 -7.40266 758.273
162.97 -7.6269 758.69
163.274 -8.08821 759.729
163.398 -8.31146 759.979
162.217 -6.4864 756.585
161.092 -4.88399 752.352
161.379 -5.33774 753.45
161.7 -5.79333 754.642
160.014 -3.52752 749.319
160.413 -3.97898 750.308
160.782 -4.43123 751.331
159.116 -2.4127 746.435
159.214 -2.63 746.63
159.62 -3.07785 748.066
158.296 -1.07962 743.399
158.606 -1.52311 744.436
158.859 -1.96754 745.364
157.319 0.244229 740.323
157.606 -0.196059 741.234
157.952 -0.637095 742.338
156.4 1.33453 737.827
156.586 1.12108 738.199
156.975 0.683516 739.333
155.843 2.20348 735.713
156.108 1.7693 736.714
154.861 3.4998 732.608
155.164 3.29016 733.213
155.441 2.85734 734.061
153.849 5.00066 728.788
154.078 4.57318 729.656
154.32 4.14542 730.602
153.234 5.85115 726.831
153.601 5.42815 727.984
151.906 7.52474 722.784
152.055 7.10374 723.596
151.536 7.74623 721.001
151.201 8.57506 720.335
151.642 7.94353 721.829
150.173 9.81256 716.991
150.387 9.39776 717.845
150.733 8.98592 718.99
149.23 10.8242 713.944
149.451 10.6238 714.382
149.863 10.2191 715.72
148.369 12.0544 711.345
148.633 11.6439 712.133
148.909 11.2331 712.959
147.524 13.2679 708.427
147.901 12.8717 709.746
148.161 12.466 710.665
146.615 14.4703 705.462
146.844 14.0655 706.22
147.126 13.6624 707.101
145.836 15.4627 703.151
145.977 15.2648 703.429
146.299 14.8689 704.476
144.977 16.4397 700.085
144.395 17.4323 698.325
144.599 17.2398 698.727
144.803 16.8416 699.461
143.203 18.982 694.284
143.44 18.5878 695.008
143.543 18.3916 695.21
143.806 18.0018 696.122
142.663 19.7634 692.69
142.976 19.3764 693.597
141.47 20.8801 688.833
141.871 20.5127 690.22
142.275 20.1411 691.528
140.691 22.0164 685.959
140.766 21.8221 686.106
139.95 23.1604 683.559
140.158 22.7756 684.236
140.409 22.3947 685.045
139.132 24.2852 680.88
139.408 23.9138 681.837
139.68 23.537 682.683
138.416 25.2083 678.616
138.532 25.02 678.845
138.808 24.6494 679.763
137.687 26.334 676.374
137.939 25.9608 677.149
138.161 25.5821 677.811
136.725 27.4118 673.208
136.99 27.0467 674.097
137.337 26.6907 675.228
136.065 28.3161 671.032
136.24 28.1361 671.373
136.495 27.777 672.348
135.329 29.4166 668.778
135.464 29.2343 669.04
134.527 30.4823 665.971
134.854 30.1362 667.075
135.105 29.7803 668
133.923 31.5697 663.797
134.091 31.2089 664.536
134.249 30.8393 665.115
133.158 32.6364 661.367
133.407 32.276 662.064
133.665 31.9199 662.863
132.418 33.6864 658.788
132.604 33.3302 659.509
132.847 32.9829 660.419
131.857 34.5813 657.228
132.032 34.4087 657.567
132.251 34.0494 658.205
131.023 35.6054 654.465
131.257 35.2633 655.352
131.533 34.9212 656.26
130.171 36.6199 651.704
130.445 36.2798 652.572
130.78 35.9468 653.583
130.02 36.8109 652.117
129.723 37.3107 650.197
129.956 36.9638 650.918
129.161 38.1824 648.623
129.365 37.8339 649.285
128.412 39.3743 645.873
128.51 39.1986 646.064
128.726 38.8549 646.76
127.839 40.395 643.715
128.055 40.0572 644.458
128.223 39.7145 645.139
126.906 41.5501 640.893
127.147 41.2174 641.666
127.277 41.0475 641.917
127.538 40.7209 642.803
126.279 42.3607 638.626
126.552 42.037 639.495
125.675 43.1914 636.905
125.799 43.0227 637.141
126.026 42.6912 637.87
125.055 44.1794 634.712
125.293 43.8559 635.514
125.491 43.5264 636.243
124.365 45.1567 632.481
124.585 44.8262 633.148
124.811 44.4998 633.882
123.641 46.1169 630.126
123.874 45.7988 630.925
124.11 45.4791 631.716
123.076 46.9225 628.391
123.248 46.7649 628.717
123.438 46.4367 629.361
122.47 47.8893 626.307
122.675 47.5723 627.059
122.859 47.2466 627.71
121.764 48.8289 623.976
121.972 48.5119 624.694
122.224 48.1997 625.484
121.201 49.7901 622.007
121.399 49.4704 622.662
121.584 49.1493 623.31
120.488 50.7174 619.718
120.737 50.4122 620.517
120.98 50.1033 621.282
119.895 51.4853 617.892
120.01 51.3244 618.112
120.256 51.0209 618.909
119.315 52.4342 616.018
119.498 52.1135 616.583
119.699 51.7995 617.234
118.711 53.3645 614.008
118.913 53.0554 614.681
119.125 52.7496 615.4
118.135 54.2903 612.025
118.322 53.9796 612.654
118.506 53.6689 613.292
117.6 55.213 610.082
117.802 54.9134 610.809
117.966 54.6013 611.408
117.045 55.9714 608.472
117.138 55.8113 608.65
117.356 55.502 609.251
116.712 56.9497 607.24
116.884 56.6425 607.844
116.981 56.3145 608.236
116.093 57.8447 605.201
116.303 57.5475 605.884
116.518 57.2513 606.586
115.559 58.7556 603.392
115.719 58.4425 603.891
115.908 58.1445 604.551
115.053 59.6702 601.683
115.213 59.3644 602.237
115.385 59.0627 602.839
114.377 60.3972 600.027
114.575 60.2608 600.395
114.837 59.9713 601.092
113.735 61.0463 597.541
113.043 62.0485 595.194
113.044 61.7019 595.3
113.115 61.5431 595.437
113.398 61.2782 596.324
113.276 63.1926 595.851
113.243 62.8254 595.766
113.126 62.4293 595.41
113.274 64.2489 595.685
113.228 63.8785 595.571
113.223 63.5271 595.633
113.308 65.3142 595.602
113.282 64.9655 595.69
113.283 64.6124 595.735
118.631 68.7501 611.62
118.551 68.5557 611.481
165.526 -9.96478 764.685
165.88 -10.4353 765.994
164.21 -8.55901 760.762
164.603 -9.02423 761.839
165.093 -9.49348 763.164
163.31 -7.40959 758.248
163.494 -7.86753 758.943
163.117 -7.1437 756.503
162.759 -6.49262 756.291
163.106 -6.95193 757.451
161.629 -4.89048 752.059
161.832 -5.34278 752.768
162.159 -5.7981 753.956
160.777 -3.76623 749.726
159.949 -2.42162 746.701
159.98 -2.63858 746.762
160.262 -3.08582 747.857
158.915 -1.08664 743.392
159.317 -1.5306 744.592
159.688 -1.97585 745.724
157.883 0.237533 740.238
158.203 -0.202763 741.217
158.546 -0.644155 742.257
157.076 1.54982 737.305
157.366 1.1129 738.225
157.645 0.676167 739.319
156.345 2.63319 735.216
156.518 2.42106 735.561
156.787 1.98645 736.48
156.057 3.04872 735.023
155.665 3.49449 732.883
155.977 3.06465 734.033
154.663 4.77642 729.421
155.224 4.1337 731.466
153.71 6.05211 726.429
153.838 5.84342 726.684
154.202 5.42128 727.897
152.766 7.31204 723.107
153.083 6.89244 724.155
153.233 6.68515 724.452
151.926 8.35207 720.621
152.091 8.1468 720.949
152.405 7.728 721.886
150.843 9.80568 716.927
151.147 9.3938 717.987
151.653 8.7713 719.82
149.907 11.0388 713.979
150.234 10.6296 715
150.587 10.2198 716.069
149.152 12.0585 711.817
149.36 11.8591 712.228
149.676 11.4504 713.165
148.406 13.0682 708.975
147.343 14.4686 705.605
147.664 14.0692 706.615
147.837 13.871 706.954
148.106 13.4689 707.903
146.763 15.2694 703.811
147.087 14.8714 704.791
145.779 16.6507 700.549
146.106 16.262 701.719
144.901 17.8284 697.717
145.088 17.431 698.434
145.372 17.0376 699.341
144.321 18.605 695.734
144.692 18.2216 696.885
143.13 19.9394 692.01
143.214 19.7434 692.175
143.479 19.3593 693.154
143.682 19.1695 693.553
141.958 21.2668 688.184
142.87 20.3241 691.095
141.214 22.0134 685.949
141.562 21.6369 686.954
140.517 23.159 683.594
140.766 22.7802 684.44
140.974 22.3974 685.196
139.725 24.2737 680.653
139.926 23.8989 681.514
140.216 23.5323 682.625
138.91 25.3912 678.031
139.194 25.0222 678.968
139.479 24.6507 679.868
138.115 26.3088 675.818
138.269 26.1244 676.116
138.572 25.7562 677.02
137.314 27.4036 673.068
137.594 27.0473 674.161
137.865 26.6821 675.073
136.576 28.5028 670.631
136.777 28.1288 671.252
137.04 27.7645 672.109
135.886 29.4063 668.592
136.135 29.2339 669.074
136.387 28.874 669.966
135.09 30.4751 665.852
135.311 30.1163 666.687
135.535 29.7572 667.539
134.607 31.1954 664.29
134.828 30.8338 665.03
133.645 32.6243 661.151
133.843 32.2644 661.856
133.98 32.0854 662.121
134.292 31.7374 663.088
133.101 33.3253 659.434
133.389 32.9758 660.304
132.418 34.3724 656.916
132.629 34.0221 657.712
132.696 33.838 657.844
131.526 35.5831 654.082
131.781 35.2387 654.927
131.928 35.0641 655.21
132.17 34.7168 656.028
131.158 36.2925 652.801
131.324 35.9341 653.37
130.229 37.4845 649.948
130.394 37.3145 650.265
130.669 36.9767 651.143
130.8 36.8023 651.395
129.47 38.5067 647.395
129.759 38.1698 648.23
128.953 39.3621 645.677
129.137 39.0193 646.381
129.218 38.8412 646.539
128.165 40.3443 642.928
128.448 40.0248 643.951
128.738 39.702 644.941
127.55 41.3608 640.839
127.752 41.0269 641.597
127.962 40.6852 642.25
127.039 42.2103 639.3
127.208 42.0465 639.624
127.392 41.7044 640.236
126.266 43.1878 636.841
126.485 42.8575 637.583
126.76 42.5337 638.43
125.567 44.1751 634.639
125.822 43.8539 635.472
126.046 43.5203 636.144
124.911 45.1418 632.259
125.127 44.8194 633.038
125.345 44.4962 633.817
124.252 46.127 630.241
124.503 45.8046 630.984
124.718 45.4752 631.643
123.514 47.0733 627.807
123.766 46.764 628.687
123.992 46.446 629.466
122.947 47.8765 626.123
123.157 47.5548 626.813
122.858 47.9992 624.927
122.322 48.8251 623.904
122.553 48.5115 624.666
122.749 48.1932 625.379
121.697 49.7692 621.725
121.914 49.4593 622.501
122.093 49.1382 623.148
121.073 50.7177 619.693
121.296 50.4088 620.448
121.486 50.086 621.046
120.398 51.645 617.495
120.571 51.3277 618.122
120.814 51.0208 618.879
119.889 52.4331 615.974
120.021 52.2759 616.225
120.231 51.9629 616.883
119.305 53.3668 614.001
119.49 53.0547 614.64
119.684 52.7432 615.295
118.609 54.2687 611.754
118.827 53.9641 612.449
119.086 53.6697 613.267
118.012 55.1881 609.781
118.178 54.8796 610.411
118.395 54.5765 611.104
117.531 56.1266 608.084
117.736 55.826 608.772
117.887 55.5106 609.312
117.036 56.8986 606.674
117.156 56.5762 607.115
116.919 57.0031 605.56
116.479 57.8016 604.722
116.682 57.5042 605.402
116.88 57.2068 606.09
116.011 58.7312 603.108
116.137 58.4105 603.53
116.28 58.0967 604.027
116.013 58.9237 603.506
115.727 59.3467 602.019
115.862 59.0416 602.588
115.017 60.3974 599.981
115.275 60.1043 600.638
115.52 59.8152 601.344
114.283 61.2427 597.719
114.576 60.9798 598.647
114.807 60.6964 599.387
113.621 62.0695 595.35
113.733 61.7543 595.755
113.994 61.4928 596.677
113.834 63.203 595.906
113.764 62.8262 595.732
113.638 62.4325 595.399
113.858 64.0873 595.851
113.807 63.904 595.764
113.812 63.5505 595.807
114.012 64.8368 596.146
113.925 64.4618 595.998
117.193 66.004 601.934
119.241 68.5878 611.811
119.112 68.3828 611.581
166.33 -10.4389 765.624
166.596 -10.906 766.452
165.491 -9.26142 762.616
164.277 -7.64382 758.716
164.473 -7.86809 759.109
163.181 -6.04486 755.478
163.597 -6.5043 756.794
163.796 -6.72749 757.194
164.035 -7.18521 757.964
162.416 -5.13153 752.926
162.772 -5.58708 754.165
161.314 -3.54321 749.144
161.57 -3.99315 749.935
161.901 -4.44486 750.979
160.277 -2.1988 745.829
160.537 -2.64518 746.715
160.96 -3.0937 748.018
159.243 -0.876368 743.014
159.413 -1.09245 743.353
159.793 -1.5365 744.474
160.011 -1.75349 744.909
159.148 -0.671296 743.184
159.035 -0.434005 742.284
157.625 1.31827 737.414
157.904 0.880959 738.322
158.242 0.443515 739.471
156.818 2.62115 734.446
157.102 2.18845 735.505
157.392 1.75469 736.59
156.227 3.48497 732.515
156.506 3.05278 733.376
155.16 4.98876 728.854
155.52 4.56198 729.908
155.82 4.13412 730.923
154.308 6.04752 726.507
154.499 5.83988 726.887
154.806 5.41474 727.841
153.382 7.30947 723.306
153.691 6.88935 724.326
153.79 6.68101 724.522
152.889 7.93465 721.974
153.04 7.72843 722.272
151.616 9.59317 717.711
151.976 9.1832 718.952
150.451 11.0322 713.872
150.724 10.6198 714.709
151.068 10.2082 715.675
150.437 11.2266 714.428
149.939 11.8479 711.92
150.221 11.443 713.022
149.226 12.8592 709.642
149.609 12.4574 710.784
148.003 14.2606 706.158
148.129 14.0607 706.405
148.478 13.6619 707.499
148.705 13.4654 707.945
147.435 15.0598 704.259
147.7 14.6595 705.155
146.57 16.24 701.036
146.721 16.0435 701.332
145.231 17.8065 697.054
145.482 17.4107 697.827
145.728 17.2204 698.309
146.037 16.8232 699.096
144.477 18.7698 694.187
144.802 18.3886 695.361
143.353 20.1092 690.748
144.165 19.1513 693.071
142.844 20.8791 689.02
143.149 20.4994 690.034
141.79 22.0035 685.753
142.148 21.6347 686.977
142.492 21.2582 688.018
141.133 23.1511 683.462
141.346 22.7681 684.188
141.553 22.3845 684.921
140.266 24.2688 680.589
140.504 23.8942 681.459
140.824 23.524 682.479
139.518 25.1924 678.336
139.728 25.0109 678.744
140.004 24.6397 679.648
138.645 26.2937 675.51
138.94 25.9279 676.458
139.206 25.559 677.353
137.883 27.4028 673.095
138.067 27.0256 673.7
138.3 26.6529 674.43
137.137 28.5004 670.617
137.445 28.1475 671.712
137.683 27.7776 672.452
136.675 29.2289 669.001
136.888 28.8584 669.662
135.753 30.488 666.151
135.874 30.3056 666.387
136.074 29.9405 667.104
136.211 29.759 667.369
134.998 31.5502 663.458
135.259 31.2001 664.414
135.536 30.8496 665.387
134.216 32.6147 660.989
134.464 32.2611 661.816
134.753 31.9088 662.69
133.809 33.3321 659.583
134.045 32.979 660.386
133.057 34.1909 657.316
132.443 35.2568 655.26
132.531 35.0759 655.432
132.743 34.7239 656.168
131.565 36.4701 652.399
131.824 36.1276 653.238
132.084 35.7777 653.966
130.845 37.4925 649.893
131.114 37.1559 650.782
131.325 36.8098 651.528
130.136 38.3264 647.712
130.41 37.9945 648.637
130.548 37.822 648.901
129.463 39.3466 645.429
129.553 39.1699 645.602
128.885 40.1998 643.758
129.007 40.0277 643.991
129.222 39.683 644.638
128.057 41.3597 640.815
128.376 41.0407 641.799
128.597 40.7083 642.598
127.432 42.1896 638.988
127.541 42.0181 639.197
127.779 41.6863 639.96
127.057 42.8709 637.765
127.231 42.5285 638.346
126.08 44.159 634.4
126.215 43.993 634.657
126.408 43.6621 635.357
125.409 45.1429 632.26
125.576 44.8011 632.772
125.788 44.4726 633.476
124.82 46.1242 630.184
125.017 45.8019 630.93
125.224 45.4776 631.66
124.203 46.9149 628.25
124.33 46.7508 628.492
124.587 46.4405 629.37
123.528 47.8827 626.18
123.737 47.556 626.807
123.964 47.2332 627.494
122.782 48.8189 623.806
122.975 48.4981 624.477
123.272 48.1965 625.399
122.17 49.7565 621.547
122.383 49.4446 622.296
122.614 49.1412 623.162
121.497 50.69 619.336
121.753 50.3854 620.14
121.978 50.0757 620.896
120.934 51.6455 617.473
121.078 51.3167 617.964
121.261 50.9974 618.575
120.351 52.4118 615.7
120.436 52.2469 615.862
120.692 51.9522 616.732
119.674 53.3314 613.574
119.913 53.0235 614.257
120.145 52.7166 614.961
119.148 54.2768 611.813
119.316 53.97 612.487
119.48 53.6497 613.017
118.988 54.4558 612.081
118.66 54.8584 610.145
118.9 54.5641 610.934
118.042 55.9554 608.233
118.245 55.6453 608.823
118.406 55.3321 609.389
117.559 56.8904 606.551
117.634 56.7276 606.694
116.848 57.7578 604.237
117.046 57.4629 604.942
117.299 57.1768 605.744
116.405 58.6911 602.668
116.562 58.3812 603.197
116.705 58.0682 603.7
115.935 59.6063 600.971
116.111 59.3077 601.594
116.264 59.0038 602.172
115.511 60.3809 599.779
115.612 60.226 599.969
115.755 59.9078 600.385
114.835 61.2398 597.648
115.091 60.9632 598.444
115.336 60.6854 599.237
114.203 62.0986 595.586
114.351 61.7982 596.133
114.576 61.5158 596.857
114.319 63.1909 595.752
114.243 62.8156 595.593
114.173 62.44 595.429
114.421 64.2716 595.803
114.33 63.8944 595.631
114.322 63.5429 595.693
114.775 64.8611 596.309
114.529 64.6376 595.866
119.803 68.0636 611.962
119.664 67.8567 611.714
119.978 68.6496 612.306
119.907 68.4568 612.183
166.85 -9.98537 765.127
165.808 -8.58331 761.479
166.115 -9.04833 762.625
166.488 -9.51662 763.949
165.05 -7.65468 758.973
165.469 -8.11921 760.332
163.875 -6.2727 755.389
164.191 -6.73056 756.406
164.449 -6.95482 756.924
162.963 -4.90687 752.593
163.237 -5.36066 753.503
163.569 -5.81629 754.457
162.292 -3.78397 750.036
162.37 -4.00251 750.192
162.659 -4.4539 751.378
161.268 -2.43679 746.76
161.537 -2.88416 747.656
161.904 -3.33343 748.739
160.102 -1.10088 743.207
160.493 -1.54427 744.529
160.949 -1.99005 745.822
159.158 0.222413 740.053
159.473 -0.218047 740.997
159.772 -0.659443 741.945
158.198 1.53439 736.856
158.504 1.09791 737.843
158.811 0.660896 738.929
157.574 2.40426 734.911
157.884 1.9701 735.904
156.843 3.48053 732.689
157.002 3.2694 733.006
157.31 2.83743 733.988
155.809 4.98228 728.84
156.159 4.55684 730.005
156.38 4.12752 730.833
154.744 6.2463 725.934
155.053 5.82245 726.908
153.971 7.30213 723.18
154.464 6.67031 725.071
153.049 8.55537 720.133
153.342 8.13868 721.133
153.665 7.72146 722.19
151.781 9.99599 716.405
152.012 9.57932 717.146
152.275 9.37827 717.665
152.707 8.96819 718.957
151.134 11.0284 713.955
151.376 10.6154 714.76
150.486 11.842 711.846
150.878 11.4396 713.111
149.377 13.2505 708.282
149.708 12.85 709.404
149.973 12.4452 710.363
150.093 12.2432 710.599
148.234 14.4373 704.616
148.571 14.0378 705.608
148.977 13.6447 706.937
147.515 15.6433 702.256
147.84 15.2477 703.271
148.064 14.8453 704.044
147.058 16.2333 700.913
146.577 16.8225 698.341
146.29 17.4237 698.449
146.456 17.2293 698.776
146.71 16.8339 699.626
145.169 18.7718 694.385
145.448 18.3821 695.278
145.705 17.9906 696.14
144.412 19.7372 692.196
143.456 20.8765 689.042
143.894 20.5072 690.386
144.207 20.1274 691.442
142.641 22.0186 686.292
142.857 21.635 687.09
143.123 21.2545 688.007
141.73 23.1451 683.376
141.997 22.766 684.216
142.315 22.3913 685.209
140.823 24.2576 680.367
141.112 23.8871 681.346
141.427 23.5172 682.374
140.013 25.3801 677.868
140.311 25.01 678.781
140.559 24.6326 679.53
139.389 26.3144 676.064
139.564 25.9363 676.716
139.733 25.7526 677.043
138.613 27.4058 673.221
138.91 27.0463 674.244
139.177 26.6841 675.231
137.743 28.4899 670.427
137.979 28.1236 671.223
138.297 27.7661 672.238
136.956 29.5751 667.872
137.144 29.203 668.478
137.436 28.8464 669.438
136.398 30.4932 666.292
136.652 30.131 667.068
136.291 30.6574 664.963
135.625 31.5599 663.678
135.893 31.2051 664.544
136.13 30.8484 665.391
134.869 32.621 661.132
135.072 32.2637 661.89
135.322 31.9101 662.74
134.289 33.5145 659.425
134.434 33.3375 659.703
134.665 32.981 660.445
133.56 34.3737 656.965
132.887 35.2342 654.869
132.17 36.2692 652.412
132.303 36.0943 652.667
132.511 35.7435 653.375
131.207 37.6437 649.269
131.477 37.3066 650.141
131.619 37.1338 650.414
131.875 36.7991 651.35
131.277 37.6766 650.2
130.864 38.1537 647.967
129.981 39.3372 645.278
130.27 39.014 646.294
130.569 38.6815 647.179
129.145 40.5177 642.71
129.28 40.3476 642.969
129.537 40.0114 643.733
129.759 39.6715 644.454
128.707 41.367 640.915
128.958 40.8541 641.968
127.906 42.3576 638.549
128.198 42.0342 639.424
128.487 41.7073 640.263
127.237 43.161 636.433
127.361 42.9925 636.671
127.635 42.6777 637.639
126.624 44.1548 634.326
126.823 43.8225 635.002
127.014 43.4887 635.669
125.887 45.1201 631.932
126.108 44.7933 632.649
126.385 44.4769 633.519
125.266 46.0904 629.715
125.472 45.7609 630.361
125.687 45.4422 631.163
124.765 46.9177 628.266
124.94 46.5872 628.875
125.047 46.4198 629.078
123.961 47.852 625.766
124.227 47.5429 626.617
124.505 47.2312 627.448
123.381 48.8239 623.843
123.583 48.5001 624.476
123.767 48.174 625.09
122.723 49.7644 621.618
122.905 49.445 622.277
123.125 49.1295 622.993
122.04 50.6978 619.403
122.299 50.3896 620.166
122.518 50.0753 620.866
121.358 51.6212 617.161
121.537 51.3079 617.835
121.773 51.0015 618.599
120.817 52.4011 615.55
120.98 52.2489 615.856
121.196 51.9398 616.559
120.26 53.3401 613.64
120.41 53.0217 614.208
120.566 52.6999 614.744
119.622 54.2524 611.51
119.789 53.9367 612.082
120.012 53.6317 612.78
119.015 55.1654 609.468
119.198 54.855 610.074
119.412 54.552 610.768
118.483 56.0903 607.628
118.645 55.7759 608.168
118.814 55.4677 608.783
118.008 56.8685 606.288
118.121 56.7127 606.502
118.3 56.4005 607.051
117.374 57.774 604.371
117.623 57.4832 605.116
117.833 57.1808 605.75
116.953 58.7015 602.736
117.042 58.3793 603.142
117.174 58.0696 603.682
116.418 59.6061 600.934
116.615 59.3116 601.598
116.807 59.0114 602.212
115.908 60.3445 599.386
116.009 60.1898 599.578
116.218 59.898 600.252
115.386 61.2478 597.685
115.582 60.9503 598.279
115.75 60.6494 598.849
114.731 62.1045 595.601
114.921 61.8195 596.296
115.172 61.5417 597.064
114.836 63.1795 595.601
114.752 62.8025 595.427
114.686 62.4351 595.341
114.97 64.284 595.873
114.924 63.9176 595.801
114.887 63.5499 595.714
115.039 64.6446 595.89
120.461 68.1187 612.407
120.402 67.9284 612.305
120.569 68.6658 612.401
120.484 68.47 612.253
167.336 -9.98648 764.273
167.747 -10.4584 765.669
168.187 -10.9333 767.19
166.251 -8.58731 761.093
166.588 -9.05154 762.043
166.829 -9.27861 762.526
165.65 -7.66215 758.901
165.985 -8.12537 760.199
164.713 -6.28371 755.649
164.914 -6.50648 756.052
163.6 -4.91457 752.285
163.961 -5.36945 753.356
164.352 -5.82611 754.517
162.532 -3.55823 748.738
162.834 -4.00843 749.785
163.199 -4.46054 751.031
161.676 -2.44386 745.939
161.892 -2.66184 746.371
162.275 -3.10972 747.73
160.949 -1.33661 743.754
159.868 0.214494 740.028
160.105 -0.000167566 740.501
160.454 -0.440453 741.665
158.799 1.52547 736.532
159.082 1.08863 737.423
159.47 0.652411 738.73
158.223 2.39582 734.722
158.556 1.96225 735.809
157.154 3.90238 731.501
157.498 3.47283 732.587
157.647 3.26159 732.883
157.914 2.82866 733.718
157.035 3.88364 731.975
156.791 4.33006 730.349
155.339 6.2474 725.523
155.557 5.82112 726.237
155.927 5.39869 727.429
154.649 7.29641 723.21
154.867 7.09093 723.641
155.134 6.67142 724.719
153.852 8.33645 720.711
152.535 9.78472 716.571
152.829 9.37165 717.56
153.304 8.96301 718.958
151.886 10.8117 714.41
152.083 10.6103 714.797
152.309 10.1986 715.712
150.958 12.0367 711.471
151.2 11.6276 712.334
151.506 11.218 713.248
149.947 13.2419 708.099
150.297 12.842 709.251
150.655 12.441 710.415
149.135 14.4499 705.373
149.39 14.0455 706.162
149.642 13.6415 707.01
148.391 15.4443 703.129
148.516 15.2456 703.374
148.847 14.8508 704.475
147.763 16.2298 700.958
148.104 15.8382 702.07
146.659 17.6014 697.265
146.976 17.2143 698.373
147.294 16.8247 699.439
145.596 18.7552 693.935
145.943 18.3702 694.987
146.306 17.9851 696.083
144.879 19.9272 691.573
145.177 19.5407 692.473
145.356 19.1443 693.068
144.127 20.8768 689.156
144.404 20.4966 690.153
144.506 20.3023 690.353
143.173 22.014 686.239
143.501 21.6391 687.297
143.801 21.2564 688.165
142.253 23.137 683.227
142.528 22.7604 684.135
142.821 22.3827 685.044
141.504 24.2632 680.583
141.825 23.8934 681.591
142.027 23.5143 682.373
140.67 25.179 678.126
140.802 24.9918 678.38
141.141 24.6278 679.472
139.91 26.2929 675.603
140.154 25.9246 676.492
140.422 25.5525 677.314
139.2 27.405 673.249
139.403 27.03 673.911
139.657 26.6604 674.722
138.42 28.4987 670.667
138.69 28.1325 671.47
138.963 27.7711 672.402
137.597 29.3822 668.187
137.723 29.1991 668.43
138.081 28.8538 669.64
136.896 30.4731 665.905
137.139 30.1096 666.651
137.354 29.7421 667.328
136.251 31.5593 663.693
136.447 31.1921 664.31
136.659 30.831 665.064
135.422 32.6106 660.953
135.681 32.2607 661.856
135.977 31.9149 662.859
134.635 33.6664 658.479
134.896 33.3153 659.3
135.17 32.9634 660.127
134.096 34.356 656.657
134.354 34.0104 657.542
133.593 35.0582 655.136
133.809 34.7003 655.765
132.851 36.2846 652.686
133.072 35.942 653.533
132.019 37.3062 650.137
132.17 37.1343 650.426
132.446 36.7892 651.188
131.358 38.3348 647.85
131.469 38.1596 648.065
131.689 37.8177 648.834
130.57 39.5229 645.062
130.904 39.0173 646.344
131.113 38.6742 647.06
129.929 40.3695 643.3
130.238 40.0398 644.171
130.364 39.8681 644.413
129.194 41.3609 640.816
129.385 41.024 641.533
129.617 40.6912 642.325
128.511 42.3421 638.31
128.712 42.0087 639.037
128.932 41.6819 639.875
127.708 43.3273 636.154
127.778 43.1517 636.288
127.931 42.9871 636.58
128.266 42.6724 637.549
127.199 44.1549 634.312
126.48 45.1226 631.949
126.688 44.7968 632.68
126.933 44.474 633.463
125.855 45.9302 630.159
126.02 45.7704 630.471
126.272 45.4497 631.246
125.276 46.9245 628.337
125.428 46.5869 628.855
125.617 46.2545 629.448
124.548 47.8539 625.768
124.84 47.5542 626.741
125.093 47.2488 627.655
123.829 48.7894 623.388
124.007 48.4674 624.043
124.242 48.1538 624.812
123.232 49.7413 621.309
123.44 49.4257 622.012
123.659 49.1142 622.778
122.577 50.6859 619.233
122.789 50.3773 619.991
123.001 50.06 620.654
121.892 51.6045 616.936
122.173 51.3119 617.85
122.397 51.0043 618.599
121.414 52.3916 615.406
121.506 52.2278 615.58
121.657 51.905 616.124
120.716 53.3168 613.347
120.944 53.0143 614.092
121.217 52.7119 614.847
120.092 54.235 611.286
120.29 53.9288 611.963
120.515 53.6264 612.691
119.455 55.1367 609.124
119.684 54.8377 609.852
119.914 54.5445 610.654
118.866 56.048 607.144
119.059 55.7457 607.812
119.247 55.4413 608.466
118.354 56.8088 605.628
118.484 56.6561 605.872
118.669 56.3502 606.485
117.86 57.7388 603.969
118.04 57.4319 604.547
118.168 57.1145 605.024
117.322 58.6463 602.14
117.48 58.3401 602.706
117.646 58.0355 603.294
116.83 59.5674 600.512
117.005 59.2669 601.113
117.164 58.9568 601.626
116.39 60.3266 599.172
116.475 60.169 599.334
116.634 59.8636 599.874
115.85 61.221 597.386
116.016 60.9162 597.909
116.197 60.6197 598.521
115.213 62.0832 595.357
115.396 61.798 596.049
115.654 61.5225 596.838
115.258 63.154 595.325
115.203 62.7801 595.177
115.164 62.412 595.081
115.381 64.2497 595.519
115.312 63.8808 595.422
115.279 63.5143 595.345
115.444 64.6044 595.482
121.24 68.216 613.226
121.152 68.0195 613.071
169.14 -11.4136 768.281
167.903 -9.99324 764.136
168.158 -10.2219 764.648
166.947 -8.59541 760.875
